# 3D point list with one line of data per point:
#   POINT3D_ID, X, Y, Z, R, G, B, ERROR, TRACK[] as (IMAGE_ID, POINT2D_IDX)
# Number of points: 375, mean track length: 6.1246054411543662
6973 -8.8254688489911732 0.92080329257296334 12.406572230167599 202 202 194 0.5164832113888902 39 158 45 40
6976 -1.8036329146770331 0.66312766343849594 9.0420566898102024 132 115 107 2.1043447562594286 26 96 20 47 27 104 29 48 40 103
7410 -1.2704337164393986 -2.0794864314043231 9.3181802546037655 67 72 76 0.57137237209218272 40 280 46 285 26 157 45 279
6979 -5.2968504749480072 2.768754693051803 8.208850188273189 150 151 155 1.4993716770279375 41 63 46 71 40 66 45 43 47 38 48 36 50 60 52 49 43 67 53 77 37 37 49 61 54 89 55 74 51 87
7921 -2.4171846530495174 1.0574233030600715 6.9865754529551696 120 99 89 1.6199829613417567 45 10 47 10 41 10 46 10 40 13 48 12 50 12 36 9 52 12 43 10 37 8 49 11
6985 -2.8109306543823993 3.3562300518813148 7.7480406179836177 149 154 158 1.7276210986439353 38 109 41 93 46 102 45 133 47 129 48 95 37 125 25 100
6986 -5.5123240769152888 2.4182471097907761 8.2986662730920404 87 89 88 1.0765377933712914 39 112 41 108 46 108 40 109 45 92 47 113 48 179 36 127 43 146 37 118
7418 -3.7417329186594745 3.789077872977006 7.5765465094449862 165 167 179 0.74738980915880293 41 426 45 321 47 268 48 297
6987 -2.0397245527876309 1.7178856919992012 9.4681125764802285 147 129 119 1.7975637418568799 41 351 46 109 47 415
7935 -1.6547504107773401 1.0505980120230605 9.2750400251934 178 189 193 1.7122910536602092 26 579 41 806 40 834 47 74
7929 -4.6289202586575966 4.3506852450661775 6.884055822820792 165 175 181 1.532190446128239 38 887 46 357 48 1084 47 1296
6990 -1.0950313041193793 -1.5092090553005932 9.2533217180948508 68 78 79 1.0962026285815387 46 121 45 110 47 108 53 743
6991 -1.8360813036024886 -2.7052766768176739 8.1343703835960071 161 174 164 2.1538813752706019 42 76 46 125 33 39
6992 -2.6957787928991608 4.7982672634951253 6.9012102483293365 141 145 156 1.3242248334618247 41 134 46 132 40 131 45 116 47 241 36 107
7362 -5.9634210613224976 4.5368954134858841 6.4562586379412155 148 153 156 0.6004642007669847 41 563 40 468 47 538 48 648
6995 -2.7327749196224183 -2.0899219794006014 6.8081432707345151 60 52 50 2.0688829417487655 34 77 46 152
7879 -2.5622600225137213 -1.9538555179645665 7.2204613098526496 0 0 0 2.3759659288144945 42 930 45 619
6996 -6.1064341443882189 4.3826049225291115 6.2406849064769361 159 167 169 0.82869623363949119 41 164 46 163 40 170 45 156 47 139 48 175
7006 -2.7357109576477701 4.8007535019370735 6.6556494357374962 151 158 166 0.86226932025912129 41 226 46 219 45 345 48 327 36 199 37 279
7008 -4.9844435763028905 3.677651612911383 6.8438779543814983 129 137 140 1.5590763629326412 42 312 46 233 40 196 45 217 47 314 48 301 43 337
7010 -2.7684518240576756 3.5895097835856768 7.3404400676910511 147 152 160 1.3817338618901887 34 195 46 240 40 189 45 176 36 181
7825 -2.1749385104354366 5.3026816981632869 7.43238346785395 151 155 164 0.91880225160848905 47 565 48 408 53 416 43 354
7017 -2.2089084427557313 3.1846697293414477 8.0644616412557131 145 146 148 0.6220925105663081 39 398 46 307 40 355 45 299 48 271 36 268
7322 -2.1550177937160075 3.4093215461799917 7.8470324746335205 121 121 129 0.50068941441602843 33 1106 40 873
7019 -1.6004674343810639 3.7917966541501662 7.7974366033882125 143 148 154 1.4893525300516206 38 135 46 321 36 117
7839 -1.9069436349564406 4.9461350858750412 8.0981222304838649 148 152 161 0.95650022845657678 47 439 48 505 53 317
7020 -1.7173600166384637 4.2271544584837866 7.9409161038523779 95 107 107 0.30828930665357906 41 288 46 328
7833 -0.93986475727136565 4.8852419955142672 7.7714491788131497 117 121 130 0.96222933491070428 40 173 41 268 48 457 52 227 50 404 53 319 49 297
7022 -1.7843418732417102 4.7298128364426653 7.4465457302978448 145 150 156 0.93445493782937117 41 366 46 345 40 208 39 254 45 335 47 294 48 319
7023 -1.1196251522144396 4.9030980054135247 7.7358938971999569 149 159 168 0.93072095078395678 41 364 46 347 47 296 48 321 53 324
7024 -4.1243935319913403 4.6646129031022356 6.7133826316587593 130 134 145 0.20128420099440866 41 365 46 348
7394 -2.7063998473732114 4.4908496003194625 6.8290192482640766 88 95 103 1.0411315929536957 46 162 45 146 47 237 48 247 37 215
7027 -6.2925123914301739 4.3516467765190043 6.0933018510928774 147 148 150 0.94836574553492692 41 652 46 362 47 906
7911 -4.6309066960502232 0.94003964384461491 8.4943796949089787 183 191 194 0.95233673917352313 45 1189 47 1099 48 1317
7028 -1.0974910390542734 4.9319137146783483 7.6732618309850373 105 114 123 0.9791027540951156 41 454 46 373 40 416 45 386 47 534 48 641 36 369 50 560 52 440 53 500 43 481
7905 -3.1136163804412882 -3.0099655061487565 8.1660108358694945 98 97 92 1.5469508728239976 47 1309 48 1244 50 794 52 796 49 596
7030 -2.2860232048397942 5.0171753577350522 7.4889441856783403 145 150 156 0.96032476285658352 41 370 46 380 45 396 47 918 48 517 52 581 50 408 53 408
7034 -5.5537641122370438 -3.3844547756152576 6.4185551638445437 146 146 135 2.1435222842396819 35 201 46 395
7038 -1.9786187602476735 -0.74050562074227244 11.200739043116297 164 136 133 1.9576934850182441 42 978 46 411 40 375
7043 -1.3721280051792015 4.8936187923672234 7.614085424257083 114 124 133 0.53398249519291896 41 453 46 457 47 1362
7045 -4.8776250988660781 4.577032231689766 6.0471961269209569 130 137 143 0.50433037466715691 41 637 46 465 40 612 45 392 47 547 48 660
7700 -1.3784332849184882 -1.1936876920750168 10.599046296546572 174 183 188 1.0369460948425826 45 640 47 1004 48 729 37 517
7047 -2.4265334534173926 4.9262046539749758 7.1971179865953046 113 120 130 0.77522830892757566 41 544 46 472 40 630 45 747 47 1029 52 1074
7710 -1.5524920142255061 3.3365440238286403 7.9619717682658289 141 146 149 1.4015017343178691 45 846 47 1132 48 793
7195 -4.8489522840569403 3.9112336063821527 6.5111026435421442 139 147 150 1.9309514486032375 41 287 40 98 45 126 47 141 48 168 50 249 43 210 37 142
7050 -6.4182917287521688 4.8180540146089221 6.2304391654461853 128 138 140 1.2014018293349773 41 548 46 482 45 403
7051 -4.5487103315919866 1.82115345077229 8.768416273066876 153 143 134 1.4922707116394387 41 808 46 487 47 384 48 560 36 675 37 469
7057 -1.0995513229301339 3.4986825061047497 8.5939983251139775 136 141 147 0.75175915799525705 41 408 46 517 45 548 40 503 47 628 48 580
7267 -2.2844358711592569 5.0511856233928816 7.451001725700408 119 123 132 1.1663031310614189 46 382 40 464 45 539 47 552 48 706 52 745 53 568
7058 -2.8699048581987565 3.0312854562045404 8.1612009161258907 173 152 147 1.261316881520131 38 412 44 538 46 536 45 661 47 660 48 787 36 406 50 704 43 567 37 474
7062 -5.8585978108606565 4.2467855676654569 6.4797184641037484 142 147 150 1.8670409485616204 38 502 46 558 52 743
7780 -3.2414382336046903 3.7625135686030413 7.7124016785324097 152 159 165 0.49360579545794403 47 98 48 86
7063 -4.4449334678921737 4.4078752696488035 6.7847778272856258 153 164 167 1.3623062886702157 41 655 46 564 36 536 35 527
7065 -1.830163898501441 -2.5496666378144788 8.0175784104719838 151 155 154 1.2555917636989851 41 461 46 588 40 538 36 437 49 591
7070 -2.5666358293911942 4.1288465596677719 7.3401960680546647 159 168 177 1.0053497962990336 35 521 42 324 46 610
7788 -14.699638019683372 6.1039162545180847 18.131853055462372 137 139 151 0.74414083621375837 42 243 48 132
7071 -5.2517173173416003 3.9277117513280051 6.357765878978114 141 144 149 1.4667004873552925 41 683 46 616 47 882 48 618 50 399 52 738
7075 -1.291102128479384 4.8907786958766302 7.6228996474977411 118 127 136 0.71421335158857902 41 767 46 652 40 627 47 1363 52 957
7895 -3.0911176614363862 3.387662670262285 7.3885205368387252 144 146 154 0.45452345871801875 10 1120 40 706 48 1157
7076 -6.1747552501106053 4.5905045235439195 6.1768456563300989 118 124 124 1.7865783825246566 38 708 42 737 46 653 45 745 39 869
7082 -14.171433483616587 -17.931584906844073 25.050361771636958 188 181 171 2.0883179654629545 38 793 46 669 29 196
7740 -4.0173893908864073 4.9164358717317667 6.9613191689866394 121 125 136 0.37776543906433879 46 674 47 1400 48 1123
7088 -2.3749935336830541 3.2410345945412167 8.0920787531916787 198 197 202 1.2447537211196773 38 657 48 578 45 668
7686 -2.7425769720611699 4.1585843696678477 6.9009405507714696 140 149 156 0.30063022984697951 45 862 46 884 47 879 48 1065 36 505
7089 -2.5032574616146164 3.2589424903588582 8.2937845558091396 208 209 213 0.16589882482056884 35 815 46 731
7171 -2.1742150264343438 4.1110652630400653 9.570815697302363 148 152 161 1.7277549409756168 41 30 45 216
7090 -1.0463396480879252 3.6950315626063017 8.4109367011678984 133 137 148 0.72011701700132846 34 435 41 904 46 737
7091 -2.7918787849823752 3.6092076376021986 7.3767876884042556 152 157 166 0.54477279783039323 41 829 46 749 45 837 47 841 48 906 36 622 52 725 53 634
7097 -3.1191746181718512 -2.3476720142368164 6.9933619694430682 119 122 110 1.2754019657383053 46 777 45 1065 47 1304 41 898
7098 -2.3478158502538418 -1.2947466252896007 7.1282945521122842 172 133 120 1.9557775996406261 38 762 36 475 37 500
9231 -1.4239590167023122 -0.10426455327215224 9.6775249937001711 183 182 188 1.0512502862892834 53 536 55 572
7102 -1.4949289060237425 -0.0923426135419778 9.5641238902470693 160 133 132 1.1191512054283672 39 550 46 829
7103 -1.6566103709924513 0.026763109569433133 10.363713296107864 0 0 0 1.3551486240880806 39 380 42 987
7766 -0.50198592013605126 2.7311257666277751 5.9096613704431853 135 139 142 1.7427101744322626 47 24 48 2
7105 -2.1112615689940717 1.2753587307201275 10.000145412153497 63 69 70 1.1886363564178573 42 990 46 841 40 690 45 815
7251 -1.8090570222452766 4.8792008295168934 7.4299225677138852 142 151 158 0.43473588913623229 41 759 46 461 40 418 45 529
7106 -1.6037312383083577 3.5321005924072244 8.0645740487704192 154 164 165 0.70367548194048668 42 546 46 844 45 851
7109 -2.5002649823456218 3.7059226960582792 7.5635480402374364 152 156 165 0.56387029530691457 42 830 46 864 40 877 45 1164 47 1179 36 636
7461 -4.3623847425728783 4.9741587737738202 6.6456547760984375 129 138 147 0.73540830754326258 40 465 45 594 48 1026 52 750
7111 -1.1766896702162337 4.3689978360639445 7.990720403407674 158 165 171 0.82036286361208899 41 680 46 880 45 706 47 755 48 981 50 694 53 641
7774 -1.7788779517991531 -2.664964138328318 8.495977743675013 61 61 59 0.77038936676645331 45 30 47 35 48 37 37 30
7113 -4.4180995349449148 4.2472136076451665 7.0691752929358591 139 142 151 2.095994368676966 34 742 46 891 50 918
7116 -3.711707829833736 4.4208158748580653 7.3802361415413502 168 174 176 0.75492076742681713 41 721 46 896 45 909 47 893 48 992 52 960
7469 -1.2825676194893936 -1.3829734142807377 8.0317798980859898 77 73 70 1.3083727267841638 41 600 45 624 48 1257 47 1289
7119 -4.5021389359513782 4.5469197733681357 6.8535966915038191 167 171 182 1.4408930223355956 38 706 46 908 48 1094
7123 -4.5240877112914495 4.6734708254505692 6.6907488796905898 132 137 143 1.2047033871415476 41 641 46 924 45 530 47 542 48 705 50 556 52 574
7844 -4.5047526067974522 -1.8592400310545467 7.882007672020019 84 81 72 2.5250041171644062 45 432 46 494 47 571 48 540 50 380 43 273 55 173
7127 -1.5151570163667125 0.42625440652113294 9.5117892525498835 0 0 0 0.6202323229066834 26 578 38 985
7134 -2.8427585554856933 4.6884170145004989 6.6309733968061764 159 164 167 0.86978673795800787 41 920 46 1011 48 1010
7485 -3.7368754567053273 4.9257998360644608 7.0355354271552395 133 138 148 0.67047192340300044 46 479 45 752 47 1399
7135 -6.2665620242771549 4.867481162693557 6.1511791407734231 95 103 107 0.50000862916823685 38 1028 46 1031
7138 -3.1759021839667128 -8.7115790852100972 16.179539671469399 186 186 184 2.0073141394125762 41 770 46 1062 40 745
7141 -1.3519067479284015 4.3113161436562741 8.3146177910303827 158 162 171 1.0593996057535446 44 978 46 1132
7143 -1.1658430528353292 -1.5939429706845487 9.8882658570786894 163 175 175 0.68661192111548541 38 385 41 789 40 810 36 548
7806 -1.6370595373519694 3.5863510189568291 8.2762142664974654 112 116 125 1.3491430766675385 45 181 47 176 48 260 37 221
7145 -3.0203527008887043 -0.92115420905318923 7.1804863591680679 158 124 115 1.7684130552664818 38 1002 46 1166 50 637 52 497
7291 -7.9220473066503523 5.0082558514568616 9.0420044920832083 116 120 129 1.7025820513611514 46 571 40 622
7147 -1.7386587956620638 4.2822328925093984 7.7807446069554533 141 149 155 0.67931933487692697 41 844 46 1183 40 883 42 876 45 781 47 1234 48 1057
7148 -1.113972009524647 -1.7781745171143386 9.5109926073907616 0 0 0 0.94188159502579083 26 794 41 873 36 567
7151 -3.2976557475794501 2.9024336974910421 7.6336883653767549 167 168 172 1.2457348171105591 41 1028 46 1220 45 1137 47 1117 36 661 52 999 53 607 43 568 37 514 49 484 54 624
7750 -16.200393470975769 -5.5990460983449655 21.697885567767127 170 156 147 0.96256878239212096 45 648 46 709 47 691 48 942 43 597 45 1108
7153 -2.2669730856232784 3.4493818352400334 7.8911035627844566 157 158 162 1.8681268425558026 35 1035 46 1250
7235 -4.4931443083270084 4.6336882139892461 7.2842717872577296 150 160 169 2.1295431999324896 35 271 41 369 46 221 40 341
7154 -1.8278334078699987 3.733535148703683 7.9019930056710637 157 164 172 0.60298519093666236 42 827 46 1266 48 1210
7155 -1.7678097875013203 3.8475495173724439 7.8937867703796725 136 141 147 0.44508506096338374 41 991 42 841 46 1278 47 1181 48 1227
7157 -1.0136859058453707 4.1039651532675974 7.938890818004996 126 130 139 2.9337568402688783 44 638 46 1295
7758 -1.5929049610622612 3.0955633387641046 8.7387551096085367 86 93 101 1.4690080562794643 40 50 48 104 45 83
7243 -5.5466110361413179 3.6565353543202495 6.5215294376048307 129 137 139 2.3566879474911313 46 443 50 349 43 394 40 391 37 370 52 233
7162 -2.3842892166816969 3.7515639467734272 7.6917999098970284 92 94 101 0.66272444032272493 33 491 35 663 34 539 42 466 38 545 32 605 46 597 39 493 41 693 40 579 45 793 47 740 48 823 52 689 37 449
9295 -3.1520792974617886 3.5812400498808503 7.3156469350596591 118 119 119 1.6406142506854142 41 831 46 860 40 712 45 838 47 843 50 959 54 489 6 514 10 877 11 859 14 911 16 1035 13 913 7 929 9 802 8 897 11 860 17 663 3 579 19 675 19 676 18 652 22 868 21 992 46 1271 55 595
7166 -2.1632546280323433 -0.075660605315157767 6.8498077528869104 55 36 28 1.4318326729563113 39 110 41 118 42 138 44 122 38 160 46 117 45 105 40 143 47 112 48 122 50 114 36 139 52 114 43 134 37 100
7167 -17.850391343686439 -23.700224697027906 31.365001888765974 153 146 136 2.2731914591350142 39 283 46 292
7168 -3.7337796288483704 0.8262893942135181 7.4342922069602642 122 96 82 2.1543963250183507 44 42 39 51 46 47 38 37 42 48 45 24
8112 -1.1512072954860919 -0.91700486485754829 9.5517043671171979 184 189 193 1.2837442570213924 50 448 52 496 53 540 43 364 37 344 49 407 54 649
7169 -4.4960176461428718 0.85671485321508289 7.9363293672147783 201 201 194 1.0975253021132649 35 81 46 22
7173 -1.6970238118612921 3.8482205210494582 7.9625004664574313 155 160 166 0.69316661017524839 46 865 38 944 48 881
7177 -1.696008490236983 -2.8784278719538312 8.7890853815593992 162 170 168 1.7807984425956684 31 846 33 1208 32 1002 35 768 30 736 26 641 20 560 31 878 34 749
8581 -1.3806393736792768 -2.355442930053294 9.2034646328959475 70 71 73 2.346071554857708 45 282 43 226 55 143
7178 -1.7344675130504181 -0.83357811292221295 7.4398640390568493 74 52 46 2.0754612170511706 25 230 27 209 26 200 20 228 31 193 30 231 29 213 44 262 45 287 48 360 36 324 50 383 43 274 23 220 28 254
8124 -4.5108892502272075 0.84999620107846341 8.7989710881620731 140 123 116 1.7878416443980527 47 604 50 629 52 604 43 373 37 410
7181 -5.3591918242800904 3.2761709969338844 7.4108586180193603 131 135 136 0.814449199773849 41 2 46 0 40 1 45 1
7192 -3.6649384505209897 2.6386476964199694 7.6987810306696431 155 159 160 1.6057200179705473 41 90 46 84 40 89 45 84 36 88 43 102 49 107 54 159
8072 -6.0381343262760145 2.2366298144884347 9.0024042636984998 127 131 134 2.1063438049018157 50 8 52 7 43 8 48 21 37 16 49 7
7193 -1.5685744153130237 3.6667430570467938 8.3874227785012998 148 157 166 1.5408730151955325 38 106 41 94 40 91 39 94 45 131 47 130 36 101 23 272 28 209
7196 -3.1543151398332108 2.9452675905630059 7.6346287196294265 155 158 163 0.44120617335090823 41 107 40 111 36 112
7199 -4.8005941117266593 4.5430629076175171 6.7829274552259919 147 154 162 0.24436103122517305 41 135 40 129 45 119 47 101
8016 -1.4521424101437039 -1.9163777275453511 6.6316626134350773 196 194 182 1.5233202870106699 38 739 36 439
7201 -2.0979596580028366 -0.37206545961885501 6.8649074120166089 167 124 108 1.5502740045601282 38 101 40 140 36 81 50 104 52 72 43 85
7202 -2.7000867384367115 4.7971374145317105 6.7287518498066916 74 76 89 0.59722598821065165 41 168 40 150 45 205 47 248 37 220
7207 -4.1351842141795325 4.9694790475146497 6.9366057588006029 117 130 136 2.0384047551788202 46 383 40 164 45 152 47 251 48 255 50 238 52 222 43 215 37 147 45 402
8024 -3.0315166709981485 4.2568535794194675 7.0457642595771945 0 0 0 2.4732360909178692 35 846 44 996
7209 -1.982850663845301 1.2535114504256974 9.1989033215061298 138 120 110 1.257003722351582 41 111 46 182 40 187 45 171 47 202 48 232 50 519 43 372 37 376
7210 -2.3024656276987367 3.7848360057445682 7.9575535628095571 140 149 157 0.55652009889169096 46 238 40 190 45 225 47 223 48 199
8096 -6.1568474419417933 2.3843964141749163 8.656225960957153 133 137 140 0.76068943351880125 48 452 50 287 52 294 43 383
7217 -1.9809725676942764 -0.19601974963646515 6.9360456786618458 164 122 108 1.210218482537434 41 215 46 204 40 230 45 269 52 453
7234 -5.3219271429082369 3.6653914388749542 6.4054338375596194 159 164 168 0.50429128050530569 46 327 40 327 47 274
7237 -3.3684942513616876 -2.5690747283607922 7.1881908289731955 181 182 176 0.78684200568121887 41 471 46 498 40 364 45 509 47 586
8184 -2.1215846802345224 3.118234655915479 8.1171397555743052 145 146 148 1.3503025328476448 41 258 52 88
7241 -4.2148513261656815 1.4593990016950225 8.4856695162771327 161 142 135 1.1706942307968868 46 416 40 381 45 484 47 351
8645 -1.0237334876123703 -1.3302800318155372 9.0670624710563263 170 180 181 1.3847126929615923 50 916 52 1075 43 630 55 687 49 538
7242 -1.7489907180952939 4.0030075958158777 8.3100903488330236 146 153 161 1.5418206540694026 33 503 46 533 48 830
8188 -1.6265849272450934 3.5647301329758552 8.6400776381294104 115 122 130 2.1311775486520372 50 127 52 98 49 111 55 96
7245 -2.7432776420232194 4.4715306932821157 6.981592746813762 130 134 143 0.52359170953202394 41 442 40 405 36 364
9214 -2.8912771569084095 -0.99132066934638363 7.0692476353749027 0 0 0 0.8365635194675175 23 555 49 408
7247 -6.2109806538379289 4.3652515716068319 6.1406532240314275 160 164 167 0.57897265195373371 41 443 40 407 46 364 45 384 47 441 36 363
8132 -1.3613659440875376 -0.59229817440281729 10.179272348880694 169 176 184 0.27958712266526786 50 813 52 596
7264 -6.1006154595080373 4.6474867861582583 6.2339633691406489 123 128 132 0.53088901974114966 41 555 40 456 46 468 45 534 48 554 36 367
7265 -2.2495622481731674 4.9729316485534065 7.3103624064958712 147 152 157 0.14888035809047062 41 625 40 461
7266 -4.6674316145343093 4.7057037668510562 6.0477200893345859 142 153 157 0.77151395016505164 41 629 40 463 45 753 47 1406
8088 -6.2639379361281113 2.2616578905446714 8.8025827206387479 132 136 139 0.93176818013924678 47 421 50 207 43 307 37 355
7273 -4.2971711808868811 0.95956869157221558 8.1336282977718959 204 192 181 1.869404431026539 41 350 46 294 40 490 45 200 39 848
7274 -2.294541299369159 3.2237462099517016 8.0744994733240834 148 149 155 0.16244571428530169 46 467 40 500
7275 -2.3129263909482738 3.3403925306846505 7.8280700360519901 134 135 137 0.84282227718882863 41 504 46 429 40 504 45 469 47 374 48 277 36 264 50 372 52 248 43 317 37 226 49 273
8092 -2.7641466968910002 3.9809876380590126 7.0644766843572508 118 124 124 1.1630847610703599 48 206 50 252 43 205
8164 -5.3757725162905015 1.1485385356424318 8.8379502772006919 186 197 199 0.13029887395533093 47 3 52 2
7953 -1.117543800121835 3.7583072048595394 8.3942843439342862 153 154 158 1.191605286922071 6 820 10 951 16 996 13 1286 9 771 28 515 27 379 33 341 35 285 34 251 44 417 41 414 46 432 45 353 47 438 48 395
7296 -2.6214659834504581 4.6307667587395285 7.1237125490393876 128 135 145 0.40290926237016145 41 646 40 653 45 734 47 904 48 999
7297 -2.606976166916374 -1.4522399999658282 7.0622738813339971 143 109 97 1.4631745854204599 39 677 40 666 45 1079 48 1261 47 1445 50 901 52 879
7961 -7.6498038884636239 2.5606666688930591 7.8535323423449332 0 0 0 0.30556831802889578 39 10 42 10 38 14
7306 -5.0386186209613593 4.1932351612245702 6.2690156170880265 140 147 155 1.2381762154984293 41 665 40 729 45 589 48 687 52 671 53 573
7307 -1.2349860345303441 -3.7698064716679052 9.4851153503994059 190 190 185 3.0433014929879585 46 1063 40 747
7965 -5.9643221365999697 2.815461112983535 7.5869649988588064 121 122 124 0.7104228528033586 40 36 41 52 43 28
7308 -2.2662493377938158 -2.787423675491687 7.8394535336540958 74 71 66 1.7955344845625036 41 775 48 1451 38 807 36 587
7312 -2.1742934971265342 -0.9483500222407204 7.5304436652792921 184 142 128 0.30613377950129489 46 813 40 817
7315 -0.93749519951263005 0.217029824574754 9.3001065476991247 0 0 0 0.37173261182306577 34 333 35 606
8037 -4.8003036681787234 3.6397793455188845 6.5149301085890938 0 0 0 0.49245586180247186 45 699 47 646
7316 -4.508969749128612 1.0251679856096036 8.7890282985074695 201 190 188 2.0967464520630359 46 713 40 839 45 651 47 684 48 773 50 997 43 469 52 830 37 327
7319 -3.8326666046576365 2.7638954528843684 7.867533615887667 144 148 149 1.3043139142261178 39 544 40 855 46 1214 36 665
8041 -1.5844544389716466 3.1152926941856798 8.3323665432109184 145 152 156 0.64018256743472801 41 818 36 662 45 1129
7320 -1.7311780648869173 3.321217183322172 8.0387607904546368 164 169 175 0.58182846273422295 44 1328 40 867
8045 -6.3270614245627481 4.9572767925445076 6.298219700152492 133 142 144 1.0887260237612628 45 595 48 1029 36 697
7324 -3.1534314801421548 4.281214595646909 7.0963096808572548 137 142 146 0.55405718842681717 46 624 40 885 48 855 53 775
7325 -6.1608182651457284 4.3274629801649169 6.1931646065064516 155 156 160 1.1738294786844283 41 730 46 907 40 890 45 925 48 1002 36 535
7326 -2.744224860525208 4.4570995089693097 6.6990486376364569 165 170 180 0.34893860192657117 46 1104 40 891 47 1343
8144 -1.6634547345271895 -0.87989194718644614 7.2372481437527654 0 0 0 2.0282040336870124 36 609 46 1138 41 1057
7329 -6.0030797926454627 4.8702728125936492 6.1859104114221379 106 114 116 0.61008432185335593 41 624 46 1033 40 917 47 1094 36 543
8148 -0.81709140418112536 3.1454572371501093 5.1708623915863487 160 164 173 0.45682881230522099 48 1363 50 1053
7333 -1.6872850699892119 3.3673182139502482 8.1093653537580117 136 141 144 0.83987627377649932 44 1225 40 936 47 652 48 927
8152 -2.6246107866573909 3.6891319450991809 7.4732241213435557 145 144 143 1.0139972700544833 6 431 8 652 11 517 15 898 14 974 16 1032 12 660 7 1374 13 680 5 718 17 588 3 502 18 434 50 699 23 436 28 354 25 346 27 380 26 359 20 310 31 306 33 345 32 363 35 286 30 320 29 318 44 418 34 365 42 464 38 488 39 336 46 529 40 516 45 565 48 594 53 497 43 505 37 366 49 383 54 452 55 540
7337 -4.1485355541494613 -1.6127954167065826 7.3403180302122282 112 117 113 1.6487850455318964 40 290 41 333 42 172 45 430 46 699 47 398 48 432
7997 -5.384761722033903 4.3360092977070481 6.3376570685398121 0 0 0 0.53991997373046718 38 319 44 503
7340 -2.7731799571792535 -1.926479610874706 7.3328629851616949 88 69 65 1.4886267933702535 35 205 34 289 41 208 40 225 36 305
7937 -1.813186212466213 -2.4169345631654888 7.7244633978866437 69 71 68 1.8320269369240521 42 1076 48 905 38 816 41 777 46 1095 40 535
7344 -3.0528573089028663 2.8412439384267443 7.7507568735316879 158 155 154 0.75316907631674945 42 629 38 567 40 854 44 1178 42 1012
7347 -3.2131628647329835 2.7646394893255928 7.7087789270565423 145 139 138 2.1822486822935985 27 735 26 727 33 1048 31 729 32 768 30 868 42 1006 46 1210 38 975 40 697 21 579 28 579 25 470 27 733 26 587 20 579 31 655 33 743 32 891 30 624 29 471 44 1174 34 676 41 707 42 435 45 1127 47 1100 47 1103 36 669
7941 -3.511773647882201 2.0930727638821973 5.9980098353384506 146 151 155 2.0305573885711397 47 359 48 412
7348 -2.358545479778654 -1.8897088647478926 7.0708434907027131 47 39 34 1.8599097099576691 46 176 31 249 28 25 33 237 32 189 44 118 41 178 36 150 40 118
7351 -2.167736412020234 -2.7355388452150029 8.2070689000332706 88 90 89 1.7740921384481461 44 1073 34 716 39 443 41 464 40 361 38 610 42 769 46 767 36 377 34 380
7945 -2.9557899591195742 3.0015945702742135 7.7529906962778439 94 92 87 1.8225744103972881 21 768 24 510 23 492 25 428 28 478 27 341 26 291 20 245 31 202 32 219 35 298 30 187 29 291 34 269 39 396 41 501 45 602 47 1039 41 705 46 726 40 859 45 834 36 407
7352 -3.9891070352182938 4.3825843521218886 7.3786343345507222 158 162 165 1.8569350659670019 33 652 32 974 42 1172 35 256 44 207 34 129 42 205 38 264 46 338 40 334 40 438 45 380 47 284
7949 -2.5379018708951859 4.2943256132864986 7.3109415708572261 163 164 168 0.88127504070828122 8 1004 6 554 10 933 11 1024 15 1013 14 1240 16 1093 12 994 13 938 9 900 5 741 2 923 17 577 19 709 18 677 22 633 21 643 47 764 35 533 44 515 34 455 42 685 38 506 41 673 46 620 40 592 45 1153 48 617 50 397 53 579 43 501 51 509
7356 -10.482299720428214 -5.9316122734267909 9.3363580993555093 0 0 0 0.10623271630624104 35 357 41 326
7358 -6.0982678794046743 4.5503708965362852 6.1997998274498212 124 128 129 1.194736655193859 41 448 40 409 45 389 47 391
7360 -5.9694579264562986 3.8805848096422664 6.5453721139938192 130 131 133 0.81063005908045227 41 527 40 436 36 355
8021 -1.5889808131080556 -2.2045574392377372 7.1986971106950284 130 131 122 1.8794144288684969 38 615 36 487
7364 -6.2803538745568748 4.9230679914331974 6.2013259973594064 90 95 98 1.2584817093077174 41 751 40 618 45 955 47 311
8522 -0.51768631785244124 3.0878143641048941 9.7174000687254214 126 136 137 1.7146375887839773 50 285 51 40 54 35 55 34
7365 -2.3386143679160232 -2.8514814226179439 7.7088471410750152 107 104 100 1.5945041083840235 41 868 40 641 37 568
7372 -4.0622020578563722 -0.49760452443579783 7.2804643388026848 126 98 76 1.7632709976318741 41 582 40 831 36 511
7379 -2.6849022065841708 -2.9904121353177819 7.3669251907384607 180 175 164 1.0297306430386894 44 19 45 22 47 18
8101 -20.224931658258459 -13.637173794330076 27.606140971391895 155 139 124 1.4717595730013919 47 196 50 351 48 240
7380 -4.8390999442465716 4.8254483806082371 6.8733760290350441 159 163 173 0.21088119429291211 46 36 45 33
7390 -2.2153098814787571 3.5006797005574297 8.0906009864191688 102 105 114 2.2433933850916459 44 63 45 79 47 78 48 94 50 166 52 244 43 156
8049 -2.7379981660177939 4.0093257366438282 6.9120124313241433 93 95 98 1.1435919465058231 38 921 42 1152 36 710 46 1143 40 721 45 1009 47 1232 48 1055 43 688
7399 -1.3444750782974761 0.28698757124147345 9.612806162649095 185 190 196 1.5257898607734319 42 246 45 197
8057 -1.798998930142224 -0.94034431356749593 7.5123941571103368 93 69 62 1.4337125917123386 28 835 26 707 36 575 38 803 41 1051 48 1271 52 1082 43 633
7400 -1.5737552758635436 1.8540909103053189 11.58774884828653 122 136 139 2.3192095836720545 45 201 47 350 50 200 43 245 52 149 46 210
7402 -1.7267952215871722 4.0368702656561375 8.1038692705789241 107 114 124 1.0455991119241197 46 234 45 222 47 179 48 262 37 175
7405 -5.8974419813051515 4.044587234611714 6.4674304216142975 151 155 158 0.8925869551913449 40 168 46 227 41 159 45 244 47 233 48 213 36 182 37 209
7407 -2.2503004582682187 2.0501949231222123 11.461780790105822 98 109 115 0.68932985766477384 47 355 48 385 45 254 40 304 37 398
8001 -2.3468110786122089 -3.6864994368035346 9.3421017667207487 142 143 137 0.38808437132714779 39 356 36 294
7408 -4.3297136345527987 0.38283448078165866 7.9177214718803599 157 139 125 1.8995197856026576 45 258 47 346 48 147
7411 -0.99889215675339571 -1.7045908334679234 8.5385956813590553 172 180 182 1.5803291816328293 45 281 47 380 50 80
8009 -1.5112546029962224 -0.52116447417109468 10.220487253264167 0 0 0 0.081353887714803258 33 377 35 716
7416 -1.9198172787292023 3.5890552105772264 8.1208529533728839 122 126 135 0.97153184532588122 46 312 45 306 47 379 48 283 50 241 43 197 37 229
7419 -4.0781025300405389 3.7467072916070387 7.4777595702114521 164 168 177 1.1611358731803931 41 304 46 323 45 322 48 298 47 267 52 384 53 388 49 363 54 319 55 368
8013 -3.6613041831703836 -4.9496223557916812 10.801986358053815 0 0 0 1.9220343240630229 39 358 41 294
7420 -1.7344766260897733 4.1618437374334629 8.0330764640706107 106 112 115 0.65601743319576866 46 232 45 323 47 271 48 480 37 333
7422 -6.0185469723967691 4.7009449716505909 6.7355042139523569 114 117 122 0.78172275963419158 46 460 45 343
7423 -1.7659891331856583 5.141773120251476 7.5684951818815236 132 139 149 0.22646582157225911 46 355 45 349 47 302
8371 -1.7840333371320607 1.4210015801802267 10.362028764149272 187 202 204 1.6294696095573165 52 13 43 9
7424 -4.5979732378681968 4.9185467476726199 6.6643950825967595 135 139 150 0.92938937291509038 46 385 45 350 47 306 48 426 50 319 52 336
7860 -0.82334077146320817 -1.3252330898806028 7.6359534188496996 0 0 0 3.0960603444546857 45 1185 47 587
7429 -6.2646101092715814 4.1700511532899212 6.1377117032910657 118 119 123 0.36501596951745452 41 276 46 340 45 381 47 292
7430 -4.5231548243334689 4.7305703186186676 6.6970326359140993 161 165 174 1.1575167856882627 46 375 45 391 47 449 48 518 50 553 52 416 37 373
7433 -2.7307565113085293 4.8693949327790795 6.6443450754211497 152 161 160 0.77126816821881594 46 354 45 400 47 457 48 396 37 374
7868 -3.2228497690532647 3.0364702850141305 7.6920305539921214 129 130 134 0.59063170315188529 46 1229 48 792 50 613 52 701
7437 -5.1891918996070272 2.5451094149376496 8.2049849158434611 126 130 133 0.45682562329540849 46 421 45 411
8894 -1.5698553875208894 -2.6380547189044861 8.635529600054376 95 100 103 2.4318827539713066 52 640 53 754 49 501 55 659
7439 -4.1234854960276675 1.7809693377183884 8.3189340046117586 160 143 132 1.738769828136439 46 488 45 448 47 416
7808 -4.012496473726074 3.0489209391033167 7.4855371107075603 157 161 167 0.80842833054892071 47 433 49 272 37 305
7441 -6.1904892529276712 4.1929478519317902 6.4370022176279429 142 147 151 0.68480816700708202 46 557 45 475 47 1287 48 632 37 429
7444 -6.214280099036265 4.2342222794832454 6.0835776842843723 160 164 167 0.52208080208825547 46 562 45 481 47 527 36 387
7812 -1.7268137040829363 4.4195017421663563 7.9862298619988117 148 156 158 0.82699743545910664 47 278 48 308 46 334
7445 -2.9024002783724741 0.60929763938155435 6.8347985009605781 182 135 120 1.4261614071099082 42 426 45 489 48 381 43 298
7448 -2.8189114329064275 -2.8554209727004927 7.797640223963386 145 141 138 1.6149601406044318 41 781 45 511 47 582 48 741 37 497
7449 -2.5424674752538796 -3.1539342962781016 8.0593476852163946 135 134 129 1.7325263009407352 42 515 45 521
7453 -4.6890688467579835 4.5831077899813755 6.1115190030079276 119 126 134 0.25378463727575451 40 611 41 554 46 463 48 659
7466 -2.030326524507807 -2.6376782975646038 7.9767006295752036 125 126 123 1.8044926240891899 42 517 45 612 47 972
7840 -5.4992615641242493 5.8749806281827839 10.803130733060266 131 135 144 2.015044522150867 41 926 48 519
7473 -3.3411809704020086 2.9111012278543251 7.6327159352793377 135 136 138 1.3017640498937979 41 819 45 660 48 731 37 405
7488 -2.9986667837340977 -2.7788604794441065 7.1232813720337953 97 97 85 0.7746843084942111 44 1082 45 770 46 1036
7920 -4.1618661537849642 4.3611132620377573 7.01417430709947 96 102 106 1.0744129570954646 45 987 47 773 41 722 46 633 40 728 48 682 52 774 36 503
7489 -3.1887326698881031 -2.2616426380706138 6.7019967753234413 130 137 129 0.57247516461361259 46 1116 45 780 47 1305
7924 -1.7735707727511998 3.1962144774336876 8.025734466541266 71 71 74 1.3173013846999451 33 575 32 727 45 601 47 1041 48 1357 50 705
7928 -2.2713297057512594 4.3861564269116338 7.6510474694673531 158 159 166 1.1255272072451894 10 1385 11 680 14 1430 9 885 48 1067 35 425 44 653 42 408 41 714 46 1082 40 594 45 905 47 993
8389 -0.75056123212502013 3.6665128214562248 9.3542731343487784 147 156 163 1.8790255547876391 50 100 52 87 43 101 54 92 55 78
7498 -2.7599359677281496 4.8557355691020918 6.6170474962046146 125 130 133 0.48373150437935197 46 938 45 889 48 1124
7500 -4.5843246506737749 4.9501375089305304 6.6476357657631961 156 162 172 1.5182152787964747 46 1032 45 893 47 935 48 718 52 659
8958 -1.3994669881399249 -0.67447580245378413 8.0796462045002428 171 142 131 1.5483847366365893 21 84 53 80 22 93 24 72 51 72 54 84 55 66
7503 -1.7688026066878706 4.7724086339381202 7.4352423344640526 109 113 121 0.46553203961829082 46 913 45 928 47 1352 48 692
7876 -2.961475862339114 -2.7611655874115013 7.3210270968271542 0 0 0 1.6041313869755722 41 889 47 713
7509 -3.6873435315151952 2.7800735474948381 7.7222883584849349 146 147 152 1.0802878716154158 38 972 45 963 46 1217 52 781
7520 -1.3420009433281792 -2.5302307153242256 9.1505947871848363 174 180 180 1.0494922282157118 38 751 45 1059
7824 -2.1680224534777093 5.2154290529637644 7.4920825101234128 108 113 119 1.3765636977507516 45 406 48 404 50 412 52 570 53 491
7521 -2.7558851750174966 4.1735693733987151 6.8529223032020532 159 164 167 0.73576920125260992 40 725 45 1066 47 881 48 1066 36 530
7522 -4.2649651685302024 -2.2636810441024653 7.5765464352216201 185 187 184 1.6595118600960532 40 637 45 1081 52 904
7525 -4.3512683632663585 0.97488221872106584 8.3389011743588419 138 131 125 0.82697668337223762 46 1189 45 1113
7832 -1.8997159291150028 1.9492071060217557 9.6459701774587732 118 121 126 0.86147457576442399 45 410 48 445
7529 -3.1599068400164767 2.9022150015752541 7.4694644640015815 138 142 143 1.7093245217763675 46 750 45 1135 47 1118
7530 -1.6351137382454082 3.2074778575088021 8.3736146832511391 163 164 169 1.2099508471649005 46 1222 45 1138 48 1430 47 1119 53 608
7531 -5.4308526212453216 2.7663077647564243 8.9932027063031228 145 150 154 1.1062703268355878 44 1337 45 1140
7836 -4.6332792475159748 3.9018769515950158 7.2776143977421492 157 161 170 1.3177476637176957 40 518 48 483 38 428 44 316
7533 -1.5276033691600419 3.5671875146100502 8.5789532435006208 128 137 146 0.48318627420836036 41 1008 45 1148
7535 -2.9102889311473144 2.5257287299694595 8.106598020540984 159 132 125 1.6660597580907344 35 30 44 28 34 23 41 24 46 25 40 25 50 46 36 17 52 35 49 36 53 40
7536 -2.5124876611718361 -1.2969680103315722 6.978173592330112 132 96 87 1.6380796766580488 41 1073 40 544 45 1176 32 509 35 867 44 790 46 1035 47 1280 36 572 50 938 52 811 48 914 43 627 48 1032
7904 -1.0216464783048564 -1.8109204386457192 8.078237159838535 172 178 176 0.55446773608330036 47 1302 51 169
7537 -3.0807126833882594 -2.8436251087725002 7.3800134021524411 81 76 67 2.0376625816121896 39 78 40 77 45 73 27 78 26 104 46 75 47 95 50 75 43 106 37 94
7539 -2.3689175068401647 3.6406612198481625 7.7166533889939171 86 86 86 1.3668787150148123 40 263 46 316 27 533 26 615 31 566 33 696 44 740 34 434 42 458 42 822 38 234 45 314 47 831 48 289 48 910 43 371 37 313
7908 -1.9823406424274947 -0.90624415580576467 7.341752619866555 177 134 127 1.0355587694493307 42 962 45 1089 33 1004 44 1038 36 700 50 1032 52 1064
7541 -2.6849161197078915 -1.3926479514198282 7.00054738716433 88 65 58 1.6581755735732746 38 865 40 467 45 504 39 456 41 477 47 326 48 356 48 753 36 476 50 265 52 195 43 228 37 425
7543 -2.2099291462420676 -2.7728585723959189 8.3137202487734836 62 64 60 0.73759349301521249 39 692 41 609 46 771
7912 -1.8459640903765573 3.3737569139117989 8.2243280067890634 163 166 173 2.0072662958676109 45 901 48 1372 37 245 54 351
7545 -1.7675306036854126 3.8948673521932355 7.8712991156384371 135 137 141 1.4278146497565276 35 401 44 448 41 691 45 983 33 812 42 843 47 850 48 966
7546 -1.810583516369789 4.1001196524755166 7.7740172252309723 136 142 151 1.9440429797908636 41 973 46 1125 45 1000 44 1099 42 1149
7548 -4.3640500787136514 1.1275336051070004 8.388057089070351 128 128 128 0.78579973490219301 41 591 46 388 40 554 46 1195
7916 -2.8251602490547421 4.1361689351752009 6.8756670970991332 150 154 163 0.54945521899962857 47 1246 48 1441 50 911 52 967
7549 -3.194659352719325 2.0339776505585285 7.9839746177382436 138 110 99 1.9637553305399227 35 110 44 77 34 88 39 75 46 46 45 41 40 64 41 47 47 41 48 42 36 62 50 37 43 41 37 40 49 39 52 37
7551 -5.3716685279016732 4.6427022987424937 6.3201320787490305 116 122 124 1.9087833081496159 44 361 42 416 45 393 33 513 46 464 41 739
7697 -3.3719560837800278 -2.5811369156279658 7.0657091780892962 181 186 181 0.96703936513686783 47 983 48 744 43 428 45 1060
7552 -2.0804323798554343 1.3405406561731046 9.9334563502575914 167 175 177 1.7339578999792686 34 334 44 281 38 400 39 382 41 489 46 492 40 489 45 1111 41 1038 47 686 48 556 36 415 50 828 43 559 49 464
7701 -4.5844263478641736 -0.70981675901040486 7.7920971270017843 99 90 81 1.2641849263336817 46 1174 47 1010 49 459
7556 -5.4780794785771025 1.7572045869511617 8.8853212589921995 147 151 150 0.82850526130106439 40 693 45 452
8202 -1.4225163033393351 2.1318740561097229 10.844249237995671 105 110 116 0.84002792157768325 50 201 52 179
7557 -4.2376771385905769 4.2799306508518802 7.8714482490924151 146 151 157 1.2029803316750818 45 0 47 1
7705 -1.6082902291213153 0.35515537727083835 9.8313556364007457 154 145 146 1.5312780242738833 45 810 47 1062 48 937 47 1059
7560 -4.5427554397443934 1.4724025614963465 8.411352560512432 187 197 199 2.1622791721430334 40 12 42 24 48 18 50 19 52 26 43 13 37 7
7565 -1.0977338796104781 2.0507098089463156 10.083170011184356 131 140 146 1.7449454405615459 46 86 45 89 50 24 52 23
7571 -6.0987178916853715 4.4988540805023431 6.4380932210321582 104 114 116 1.0041876152318723 38 127 47 102 48 134 37 99
7781 -5.9564747652989549 4.4572731093357332 6.5098211752677413 157 162 165 0.17397172756473622 39 135 48 90
7572 -1.636832941575288 5.0559477989221699 7.4145621084319924 143 153 158 1.7642983988702021 45 74 47 104 48 135 43 97 37 72
7785 -4.6635150609899814 -2.0045843172577302 8.0264820464812558 186 187 181 1.5847764358808769 48 124 50 136 52 120 53 132 51 111 49 131 54 238 55 100 55 172
7576 -2.9258073882623394 2.0580187307433504 7.7537457137905541 164 136 125 1.7634346902980309 45 95 47 122 43 120 37 112 51 89
7789 -6.0377186797821443 -1.7006132552276918 9.705970181055374 186 188 183 1.0820196599637695 48 143 43 73 37 80
7580 -2.6682823732263437 4.6254060548441904 6.9136991854587349 145 149 160 0.97434606939303858 45 149 47 138 48 251
7583 -5.8958120086578818 3.8382676104769669 6.5611443352492023 87 91 94 0.75652354834907776 47 145 48 167 37 141 46 142
7584 -2.1735963998809669 -2.7328738499048941 7.7585884176041437 159 164 157 1.7307698045344619 40 271 45 183 46 392 47 147 48 103
7733 -1.7356377430758672 -4.1034033656075923 9.7713531376292764 138 140 135 0.49496926988044077 46 1068 47 1326
7588 -5.9098217589481523 3.5559369544718171 6.6910119519170923 144 149 152 1.5105286480963442 45 139 47 180 48 164 37 137 51 126
7892 -3.9789421214811593 3.9356344417740696 7.4312526572451425 171 174 183 0.26606131037518588 47 867 48 1049
7589 -5.8811536790966787 3.7635983780342133 6.4026238051733957 143 147 148 1.771054522593035 45 161 47 183 48 166 37 181
7681 -1.6782712367814026 3.7688667045517592 8.397746246389449 127 134 140 0.38042611780186186 46 1264 47 827
7600 -2.6877606939844791 4.5770788132207878 6.613595197016167 141 149 151 1.4679231580080225 46 168 47 240 48 323 37 277
7602 -4.0717726271862924 1.7699895700072958 7.9922424074276526 194 196 194 2.1734484554905933 38 270 43 247
7685 -2.724714757382912 4.0828746040880759 6.8813369292347515 137 146 151 1.4054557909183172 46 881 47 873
7604 -1.7614156630129014 4.2432595415414465 8.0450035228459118 109 119 124 0.48366286220546989 45 366 47 275 48 610
7608 -5.9820265135492363 4.7981928382173216 6.5656045928283611 134 138 141 0.66233010338882914 45 346 46 350 47 301 48 482
8719 -2.083266003610253 0.53838235224448339 7.0163586544268917 0 0 0 1.6859043364716189 43 51 52 41 53 25 37 42
7614 -3.7675421727560221 0.32825888018490784 7.0021651753549197 157 138 129 1.3652271936564708 45 1107 47 345
7615 -4.9143974652640079 0.18429593503903846 8.7060756009048426 193 196 187 2.1492931486721512 47 347 53 533 37 526 48 1311 48 1310
7761 -2.574517418213607 2.9537329383971533 9.0358371681627396 181 163 154 1.4703749909720241 45 560 47 561 37 160
7616 -0.98265427009537265 2.16553623615131 9.5060773198707267 115 125 134 1.7695343651469291 45 447 37 409
7765 -4.9085111198147153 3.0843871601721111 7.0963782313101245 125 126 131 0.37803384646926314 47 0 48 0
7621 -2.8155524859598469 3.3989037991174387 7.1528770434685933 144 147 154 1.8717037703378183 45 229 47 381 48 506 50 479 52 257 43 325 37 443
7635 -4.4990677180736336 4.1944786694456893 7.1384939963319951 156 163 173 1.4102563252757525 38 355 45 716 47 507
7636 -4.2618536455140692 4.19430080728322 6.981539196223788 136 140 149 1.1026527976464642 45 577 47 508 50 567 53 479
7849 -4.2131835953196841 3.7529503319179152 7.3391426949624492 125 129 138 0.16749883555289111 47 629 48 604 52 544
7640 -6.1435851864463187 4.4473006994258437 6.1993091918365275 122 132 134 1.2561559361787178 38 360 46 573 47 537 42 409 48 644 36 383 41 734
7646 -3.7316028947803628 5.1082930398627484 7.0705273317899913 124 129 135 0.9494279742819044 45 547 47 563 48 719 50 673 43 463
7793 -5.9382009092551185 4.2803239352201663 6.8118364190828125 140 144 147 1.3662444573022894 40 169 47 235 48 173 50 176 43 184 37 156
7648 -4.1700547276651196 -6.0233305989502419 11.832316736673343 142 143 137 0.48747677965549119 45 522 48 521
7652 -4.2074434235450209 1.0258928120238511 8.2723143317676566 131 112 111 2.3085185205688052 36 466 37 555
7654 -2.0201315664072319 2.957722174354199 8.2004186321586907 213 199 195 1.2224643437393852 42 376 47 613 48 451
7657 -2.5604255568214467 3.2712466152105519 8.5889860090275647 0 0 0 0.4436370458308474 40 501 45 466
7805 -1.965770253499723 2.2227518031332627 10.664046746040308 135 146 148 1.9543351704627585 47 250 48 250 50 134 52 106 53 85
7662 -4.7478845113354442 -0.98583402164896128 7.9845664462632024 101 91 82 1.8522106563646454 45 588 47 696
7664 -1.2434560167647284 -1.6274892551661804 10.146438285166724 144 158 161 1.6165341216684235 42 948 48 754 47 703
7665 -3.3461007518009369 -3.1691331894494179 7.5588060319407839 144 145 139 0.45227431574096022 47 716 48 350
8256 -1.8798997250956693 5.3331872401929106 6.9507875591980941 134 138 147 1.8631703488228066 50 540 52 424 43 179
7667 -3.1924220246690829 3.526489828362545 7.2523882627066962 163 170 178 0.6368853256197593 46 526 47 730 48 1214
7668 -3.3503106950031265 3.5742475413846337 7.3043113450650159 163 168 172 1.4714101701471067 45 564 47 737 52 686
7671 -1.0578798094856618 4.3915018150506429 7.948976733147374 153 162 169 1.0638288658199702 44 355 46 450 47 756 42 329 48 843
7753 -1.8268822893923249 -0.98699023935165342 7.4284387898077373 82 59 51 2.6712577292133552 44 793 39 707 41 1054 45 792 22 804
7672 -5.9479851954858995 3.8131175937899 6.4478614516506632 157 161 162 1.7635915667474837 45 707 47 758 53 395 49 367
8783 -2.7887910978752526 3.7386286509760467 7.3208839961580798 149 153 160 1.0391728716922479 50 356 43 331 37 258 48 293 52 381
7678 -4.4160384815923157 3.1782216464867945 7.9591298289202159 129 133 143 1.5262424185726311 40 254 41 298
9139 -1.06671781420643 -1.6281927313267555 8.4090758517306323 82 87 91 1.3837193591953225 53 551 54 554
7680 -3.7181640343525082 3.421918173323828 7.5349332233191646 130 134 145 0.17065338927807144 45 676 47 825 48 917 37 445
7683 -1.7218515528380567 3.787205121443495 8.0746425482781952 156 164 167 0.38168536849969792 46 748 47 837 48 815
7684 -3.0255693008982925 3.5631254623033981 7.2388512288204767 139 144 152 0.99711712929533558 40 711 46 1048 47 840 48 939
9093 -5.0764341642511557 3.9203719140759152 7.1504586449766991 81 86 89 1.1427515321586408 51 205 54 174 55 243
7690 -6.1021790083434144 4.5610889839974869 6.0212201484228327 154 159 162 0.32214914079792584 46 1009 47 917 36 652
8638 -3.0042887407933949 -3.1869974494849007 8.1579287660754485 106 110 109 1.7996916709725967 47 976 50 871 43 600
7695 -4.819894843682281 4.4309542449042061 6.0419696502395093 164 168 179 0.032107009895824434 46 650 47 961
7702 -3.6378902490338128 2.7453347717896914 7.5592285024907726 137 141 142 1.7556687250950345 45 828 47 1034 37 437
7707 -0.93538203175656975 2.0092985949843318 9.2913603402391658 169 182 190 1.1949675319541946 46 715 48 774
7708 -3.8150375358207307 2.6990873491536269 7.7486654743131886 133 138 141 1.0730304011704375 40 558 47 1105 36 413 43 566
7711 -1.774591432278761 3.4004537729633975 8.0508256936726585 164 167 174 0.61154471329259108 38 659 42 969 47 1133
7712 -3.2789273157261278 3.2207541863103679 7.3885059032651634 163 166 175 0.04922689681382568 45 850 47 1135
7719 -3.3373418906656895 3.6636986193923411 7.2342765705517245 135 140 143 0.17306595614442943 45 693 47 1192 48 1235
7722 -5.8180800827016448 3.533877809925515 6.5568841122822663 153 157 157 0.2625325170885644 45 992 47 1214
7727 -2.2717795963461525 -1.5658827055196431 7.0631041458233401 175 139 126 1.3371542919925974 40 927 45 621 47 1290 37 529
7738 -2.8087448504059083 4.782092971487871 6.6687637510011051 148 158 167 0.58013599164814889 41 935 47 1390 48 1115
7744 -1.5242957014750205 3.5431983270927225 8.5304856503544411 151 156 162 0.464975534131709 45 969 47 1421 48 1380
7752 -5.0649954183480581 -8.9368533234740024 15.74305356860531 192 194 181 1.1410279568444004 45 1024 48 1176
7754 -1.3592338845374605 2.5634610275454119 9.0674452198909918 94 100 102 1.8126756814474325 34 15 41 23 46 24 40 24 36 31 37 23
7776 -6.3920591047699027 2.9951373808259136 6.772831805396982 136 135 131 2.0331109113950396 47 34 37 27
7784 -2.085005013690195 1.468261595550711 9.8770167344661832 173 178 184 1.768886230359042 40 236 41 204 47 161 50 832 36 159 52 829 43 300 43 643
7786 -2.6994003234725032 3.8892659450983555 7.1902491689670018 148 155 165 0.69107445652664001 47 134 48 128 37 135 43 159
7787 -2.7291787255077855 4.1024948030815702 7.2467939620240083 153 158 168 0.66084152559538922 47 135 48 129 50 173 43 185 37 129
7794 -3.6406569583726571 -2.4573183868012634 7.1668806006296801 175 186 178 1.9629261245856966 45 1073 47 149 48 181 50 884 50 799
7798 -2.783062050775059 -1.7898391714604927 7.101067035397775 125 99 94 0.99896930584612209 45 166 47 150 48 192
7803 -1.7943277485124471 -4.3325616953214476 9.6074684268726358 0 0 0 0.48250224952685594 42 178 45 162
7810 -3.1345762954995946 3.5100037522529712 7.7669378659729684 146 154 156 1.1040629684871761 47 826 50 366 53 383
7813 -4.5551863203927061 4.0589037105205703 6.9895200628811578 127 135 140 1.4503048439326665 45 328 46 229 48 310 36 356 50 568
7831 -4.303063503414152 1.2209431201958265 8.6694595138291799 156 133 127 1.8353327637927417 47 1018 48 444 50 280 43 301 37 238
7835 -2.8172335760196896 3.6658359877966462 7.0916310491750565 161 165 174 0.72055362978090631 45 320 47 264 48 474
7838 -1.8715506197535998 4.4823984266638082 7.6299535404736369 128 131 140 0.90138736890832583 47 509 48 496 43 340 52 232 37 270
8960 -8.1175265693331315 5.4189525588106928 9.0827357283736223 129 130 132 2.1308520076390804 52 125 51 75
7859 -3.4086041561748019 -3.8137796802918764 8.9496419292874823 180 183 176 0.47186113764929793 47 971 48 739
7863 -4.5455380269917596 -1.7157054292166996 7.8092741775054693 163 162 157 1.2421509679021543 45 638 47 1203 48 760
8463 -6.5093745113441468 1.7643731915080192 9.0788195621589924 190 194 197 1.0053993530596208 48 1331 53 524
7902 -3.5282879084764454 3.5099651068682847 7.307076571897527 137 140 149 0.12333590270930407 47 1174 48 1221 37 511
7909 -3.8722360021688633 -1.4053139873683427 6.9050067332321641 97 100 93 1.3257820830245084 47 1205 48 1277
7910 -2.3702092204104286 0.43160093429396473 11.274253820507333 0 0 0 2.977004077889343 45 961 46 1326
